# .PCD v0.7 - Point Cloud Data file format
VERSION 0.7
FIELDS x y z intensity
SIZE 4 4 4 4
TYPE F F F F
COUNT 1 1 1 1
WIDTH 1376
HEIGHT 1
VIEWPOINT 0 0 0 1 0 0 0
POINTS 1376
DATA ascii
198.4527 -1.4828089 -4.4821734 5
200.08975 -1.4456654 -4.5696454 3
203.63449 -1.5090904 -4.5521193 3
181.15231 -1.369416 -4.5928383 29.5
181.4594 -1.2707342 -4.5595331 13.2
181.72841 -1.2922053 -4.5717454 10.8
181.87561 -1.3333845 -4.5750556 17.5
182.23523 -1.3114017 -4.5862622 8.666667
189.12413 -1.2430706 -4.516953 6
190.33224 -1.3184958 -4.508595 1
190.51164 -1.2322071 -4.5351558 7
191.20482 -1.3459034 -4.4940119 2
191.66499 -1.3970718 -4.5769501 3
192.32504 -1.2487469 -4.5287771 5.5
192.41849 -1.3781109 -4.5978131 20
192.73666 -1.2513962 -4.585772 13
192.86655 -1.2173672 -4.5778756 16
194.32779 -1.3196507 -4.4223032 7
194.46999 -1.296874 -4.4534664 10
194.71555 -1.294727 -4.4968309 8.5
195.59766 -1.3321457 -4.4617805 2
195.68773 -1.2544321 -4.457727 21.25
196.10318 -1.2736831 -4.5959802 10
196.33868 -1.3585829 -4.4759846 22.333334
196.55417 -1.212604 -4.4912453 17
196.72749 -1.2760386 -4.5078335 9.333333
196.85962 -1.3135282 -4.4691606 8.666667
197.36032 -1.3047822 -4.4528656 3.5
197.45296 -1.3279915 -4.4954209 3.6666667
198.16435 -1.3761238 -4.4821439 8.666667
198.5488 -1.2726851 -4.5367384 3.5
199.49721 -1.2749062 -4.4249616 3
200.64537 -1.3191009 -4.4857535 3
202.99991 -1.3857765 -4.543437 3
213.89053 -1.3094616 -4.5867519 11
219.3968 -1.2263389 -4.5689778 5
219.51221 -1.2707204 -4.5141039 7.0714288
219.65685 -1.2284021 -4.4756966 16.25
181.14444 -1.0993228 -4.5917854 31
181.55141 -1.1201373 -4.567349 12.666667
181.77042 -1.064064 -4.5819335 6
188.10764 -1.0111008 -4.5256329 3
188.88916 -1.1144338 -4.5043855 11.333333
189.15608 -1.0938194 -4.5242605 10
189.25266 -1.0734396 -4.4695206 6.5
189.55112 -1.1381845 -4.5232668 13
189.69774 -1.1324029 -4.5267587 13.6
189.87349 -1.0942571 -4.5024214 12.7
190.07257 -1.0847199 -4.5429649 6.5
190.40863 -1.1672072 -4.5230217 4
192.03905 -1.1837473 -4.5430431 4
192.59389 -1.0404706 -4.5469694 7
192.6743 -1.1975412 -4.5553675 3
192.91914 -1.1174735 -4.5688348 6
193.08484 -1.1586902 -4.5795078 12.5
193.63152 -1.0306115 -4.5982542 2
193.92424 -1.1804767 -4.5869575 2
194.32155 -1.110386 -4.4723077 12.8
194.49222 -1.1788089 -4.4590502 10
194.70381 -1.1781745 -4.5022802 4
195.88234 -1.1082563 -4.4366446 25
196.16772 -1.0681443 -4.5116272 8
196.28868 -1.1897993 -4.5087433 8
196.43808 -1.0937164 -4.4648876 19
196.70485 -1.0995755 -4.502646 16
198.26723 -1.1706944 -4.5210667 11
198.5519 -1.0434499 -4.455513 1
200.20224 -1.1295118 -4.5348644 1
202.96288 -1.1466403 -4.4631014 4
219.39601 -1.1536155 -4.5384812 7.5
219.45302 -1.1663711 -4.5225286 11
219.64461 -1.0874945 -4.5068989 2
171.75752 -0.8908329 -4.4738998 4
180.64433 -0.86804742 -4.5958009 34
180.87869 -0.86451769 -4.594243 15
181.00096 -0.82682991 -4.5870523 18
181.4182 -0.95228815 -4.5931683 31
181.61896 -0.94509637 -4.5722184 25
182.15335 -0.84290367 -4.5459599 4
187.53813 -0.81309986 -4.4353023 9
187.91928 -0.87029934 -4.557126 19
188.02094 -0.81562519 -4.5063629 12
188.22842 -0.82042551 -4.4669104 24.25
188.44775 -0.99891567 -4.5997458 21
188.77588 -0.94770193 -4.5137815 14.5
188.91815 -0.96465194 -4.499649 10.75
189.0923 -0.9371376 -4.533072 10
189.31503 -0.98741055 -4.4466238 10
189.47069 -0.82460976 -4.5176382 11
192.59413 -0.91712999 -4.5661569 17
192.71687 -0.92116785 -4.5589814 3
193.43971 -0.9972477 -4.5999556 2
194.33023 -0.95198679 -4.4613848 2.5
195.72661 -0.90146065 -4.4722404 8
196.04341 -0.91540527 -4.512682 10
233.15709 -0.82960272 -4.4760957 1
174.2269 -0.60075951 -4.4792061 6
177.17432 -0.64694118 -4.5698576 6
180.87878 -0.71693569 -4.5703754 17
181.26443 -0.63207054 -4.5900331 13
181.47205 -0.75794077 -4.5799389 17.666666
182.16803 -0.70619059 -4.5731583 18
182.2193 -0.71798849 -4.5083385 8
182.66945 -0.65243751 -4.5981717 23
186.76347 -0.64771557 -4.493463 16
186.89972 -0.6483469 -4.4916487 9.125
187.31133 -0.67372608 -4.4732642 6.6666665
187.54941 -0.68582344 -4.4469595 3
187.78166 -0.66508007 -4.571269 26
187.92615 -0.71354353 -4.5059557 14.2
188.10239 -0.71122217 -4.4993649 20
188.23854 -0.76690578 -4.4434185 9
189.43448 -0.74173832 -4.5158224 14
189.63345 -0.76232123 -4.5332403 6.5
189.97157 -0.68708181 -4.5574942 7
192.86478 -0.75829649 -4.5963197 9
195.13173 -0.71242428 -4.4103241 4
232.94879 -0.71464157 -4.5472603 1
233.09724 -0.69198221 -4.4921145 5.2352943
233.25771 -0.72018319 -4.5185027 5.181818
172.75032 -0.5133152 -4.4830055 2
176.03491 -0.40139723 -4.5429964 3
181.12509 -0.46043205 -4.5783358 17
181.2645 -0.59080029 -4.5949678 40
182.15417 -0.55605197 -4.4304819 6.5
185.68546 -0.55358499 -4.480906 18
185.82277 -0.4635582 -4.4893899 3
186.69357 -0.5155009 -4.5528784 10.5
186.93834 -0.57237053 -4.4395323 7
187.0699 -0.57163429 -4.4976401 2
187.23447 -0.54081964 -4.4496169 7
187.52974 -0.55935383 -4.4412627 2
187.71222 -0.53689575 -4.5045075 9.333333
187.92616 -0.48458862 -4.4520245 2
188.13705 -0.48525992 -4.4813514 18.200001
188.32564 -0.44176054 -4.4598112 22
188.50681 -0.45906568 -4.5451555 14.5
189.43686 -0.47686434 -4.5099573 7.5
233.06418 -0.59565639 -4.439127 4
173.25227 -0.35357475 -4.4477253 7
174.86749 -0.24145174 -4.4995704 3
178.32347 -0.22009969 -4.5939155 13
180.9287 -0.36831379 -4.5745244 20
181.51547 -0.31104279 -4.5665474 1
186.10188 -0.24629228 -4.5607753 11.666667
186.55952 -0.35551739 -4.5681381 5
186.71727 -0.26545212 -4.535748 6.6666665
186.9379 -0.35149169 -4.49856 8
187.05434 -0.33974254 -4.4580259 9.5
187.909 -0.34062243 -4.528852 13
189.31677 -0.32525063 -4.5560064 6
168.80945 -0.12933445 -4.4113226 4
172.46489 -0.034825325 -4.446734 3
173.59668 -0.15646887 -4.4642277 3
178.49617 -0.025319576 -4.5957494 8
179.57385 -0.018288136 -4.5532937 2.5
179.6855 -0.0020480156 -4.559114 1
180.14665 -0.083579063 -4.5657787 3
180.26524 -0.13486822 -4.562911 44.400002
180.80605 -0.15714693 -4.5266409 20
181.17055 -0.19559121 -4.5415735 4
186.39278 -0.1205945 -4.4964266 5
186.48462 -0.10005403 -4.5401683 25
186.75082 -0.063847303 -4.5736065 20
169.73586 0.0088243484 -4.4014654 13
175.11775 0.18880463 -4.5325408 5
178.74661 0.049432278 -4.5728025 3
178.89249 0.055244923 -4.5888319 5
179.50386 0.11199307 -4.567193 18.25
179.61862 0.073596001 -4.5303259 4
180.62683 0.14382648 -4.5924392 33
180.90926 0.1161499 -4.5157866 17
181.03973 0.063425541 -4.5497007 13
181.23235 0.19164085 -4.5123549 24
181.54779 0.14235377 -4.5817385 21
186.1259 0.13155389 -4.5312347 20
186.44685 0.10139698 -4.5018301 11
186.79814 0.044684887 -4.5904479 5
169.8465 0.36373758 -4.4495425 11
171.32584 0.22077179 -4.431941 6
171.58257 0.29973793 -4.438457 3
174.26616 0.27149391 -4.4947271 6
175.79405 0.37696171 -4.552772 9
180.36975 0.36234671 -4.5760746 48
180.73273 0.35449624 -4.5375562 19.5
180.89977 0.29150867 -4.4856825 19.799999
181.13829 0.26426062 -4.499032 15
181.20406 0.30993938 -4.467454 15
181.46082 0.26579428 -4.536469 21
181.63536 0.21079922 -4.5429468 21
185.75294 0.32385957 -4.5389595 18
185.84491 0.32978749 -4.527462 15
186.07314 0.3068099 -4.4846983 15.5
205.46597 0.39885044 -4.5701628 2
172.84953 0.42655754 -4.5094857 8
174.09808 0.42208672 -4.4788237 7
174.27478 0.50258636 -4.5738754 9
175.04619 0.44364357 -4.5117216 8
175.69356 0.54408193 -4.566494 5.5
176.19585 0.43488693 -4.5955992 9
176.24911 0.4307375 -4.5782957 22
176.87773 0.43842936 -4.591783 3
180.58943 0.52316809 -4.5129175 2
180.69418 0.59475374 -4.4988956 20
180.92419 0.52483034 -4.4886336 18.333334
181.11771 0.4812808 -4.4911308 17
181.29808 0.55740786 -4.5226159 26
181.47198 0.49005437 -4.5249882 18.75
181.70477 0.46640539 -4.544693 7
182.18689 0.54826617 -4.575592 8
185.13849 0.58132648 -4.5554266 25
185.26692 0.56981534 -4.4782662 14.666667
185.6631 0.58651352 -4.5569038 13
185.88396 0.42153168 -4.4907007 6
186.18869 0.50419283 -4.5943809 7
180.62184 0.74638724 -4.4139595 4
180.81834 0.70143318 -4.4481268 11
181.02573 0.64239621 -4.5263081 22
181.34355 0.61734104 -4.5280728 18
181.72189 0.74500942 -4.5608664 17
184.72127 0.75419837 -4.5378652 16
184.86896 0.7253893 -4.4947925 21.333334
185.1071 0.64146096 -4.533668 17.25
185.29559 0.68029124 -4.4901209 10.769231
185.48683 0.73498821 -4.4611373 6
185.61954 0.63890648 -4.5172439 7
186.01396 0.65702176 -4.5909352 9.5
186.2653 0.6161232 -4.5995073 3
194.36145 0.64081955 -4.5233006 11
175.90152 0.82549381 -4.570365 5
179.30168 0.91728532 -4.5369143 8.6000004
179.73918 0.97895169 -4.5780587 5
180.37073 0.92963958 -4.5654202 21
180.4608 0.88591844 -4.5111289 23
180.73955 0.84959525 -4.5501862 27
181.85887 0.85768127 -4.5799685 24
184.25945 0.97861624 -4.5753298 20.5
184.51433 0.93309426 -4.5601625 21.5
184.72363 0.82420301 -4.5015764 22.25
184.89091 0.86115336 -4.4786425 13.625
185.11009 0.94197142 -4.4993377 15.375
185.44901 0.83512115 -4.4538503 3
185.76003 0.90377998 -4.5982275 2
185.89011 0.87906432 -4.5721507 11
210.78905 0.81821728 -4.5610452 2
169.75844 1.0200772 -4.4298444 34
169.97189 1.1350346 -4.4098101 42
172.36147 1.0554314 -4.5064735 8
173.27888 1.1049938 -4.4938669 6
179.33054 1.0005722 -4.4864779 4
180.39728 1.0031857 -4.5480127 27
180.51779 1.1767802 -4.4780669 16
180.664 1.0698228 -4.4589672 14.5
181.57042 1.0245581 -4.5926852 20
183.04767 1.0770164 -4.5181322 2
183.92162 1.1165924 -4.4757695 2
184.32394 1.1301365 -4.5289698 16.5
184.69815 1.1393504 -4.5868244 14
184.85025 1.0871959 -4.5668402 8
185.07954 1.0597639 -4.5184784 7
169.3114 1.2470075 -4.4217896 11
169.72198 1.2957323 -4.4183226 14
170.11314 1.2897458 -4.4100823 29
176.85291 1.3356586 -4.5721874 16
177.48862 1.2457545 -4.5818024 18.5
180.47864 1.2094426 -4.5130429 20
180.9151 1.2369676 -4.4706845 10
181.55463 1.2489526 -4.4869785 8
181.6044 1.2445836 -4.4106355 1
183.91812 1.344376 -4.5667048 15.4
184.07654 1.2285824 -4.4975958 8
184.65411 1.3066685 -4.493988 12
197.09723 1.2801552 -4.4282961 10
170.0497 1.4007862 -4.4240322 20
170.22588 1.4782009 -4.4376802 29
176.11308 1.4776306 -4.5883198 1
176.64616 1.4856062 -4.5946698 1
180.64987 1.5062315 -4.5480227 16.5
180.84242 1.5706549 -4.489202 11
183.78818 1.5840759 -4.4986143 28
183.83102 1.5762501 -4.5067558 30
184.3329 1.4739113 -4.5036144 22
184.67851 1.5897765 -4.5092506 7
184.81866 1.4751148 -4.5407381 11
173.02803 1.6418591 -4.4707747 7
180.29138 1.6804118 -4.4742889 6
183.86299 1.6639429 -4.5388389 22.333334
184.10097 1.7032652 -4.5215993 18
184.34688 1.7165923 -4.5206981 13
184.5386 1.7154298 -4.5338173 20.5
211.83258 1.7260742 -4.5833197 2
171.50105 1.9690247 -4.4364791 6
173.96776 1.8875961 -4.4941325 7
184.53256 1.8536825 -4.5406175 14
171.60492 2.119381 -4.5010767 7
180.07942 2.0790663 -4.5775447 48
180.69386 2.105155 -4.5351272 12
183.21967 2.0938087 -4.5775318 8
183.4397 2.1001158 -4.4515896 8
183.71672 2.0450244 -4.5461631 13.5
184.06911 2.0596757 -4.593595 12
169.59627 2.399725 -4.4088521 13
179.89673 2.3976338 -4.5940723 42
180.32173 2.2031488 -4.5920267 23
183.50888 2.2491503 -4.5481491 11
183.97626 2.230207 -4.5853591 8
174.14331 2.4888721 -4.4690681 7
179.90004 2.4267757 -4.5672703 21
180.08786 2.4843278 -4.5818982 20
169.65732 2.6805725 -4.4546061 7
170.34128 2.7511635 -4.466445 30
172.29572 2.6850548 -4.461637 6
172.59966 2.6499214 -4.5609512 8
177.95496 2.6990089 -4.5760546 7
180.14154 2.6569829 -4.5521917 25.5
201.56938 2.7161908 -4.4789886 5
169.2243 2.9205227 -4.4207115 34.5
169.43863 2.8409162 -4.4332447 10
171.12242 2.8472157 -4.4974251 7
172.79379 2.9685073 -4.431335 8
172.99403 2.8559456 -4.489243 14
174.21436 2.8400054 -4.4329782 8
180.24193 2.860729 -4.5689859 30
169.26843 3.0472858 -4.4315515 28
174.40973 3.1561241 -4.5543447 7
179.78874 3.1572895 -4.5009508 2
180.10764 3.1071076 -4.5555439 42.5
180.23196 3.1222413 -4.5702763 31
180.43831 3.0141485 -4.5257959 6
182.97176 3.0797443 -4.5953836 21
183.50024 3.0320609 -4.4345388 14
200.38609 3.0093412 -4.4490247 2
177.52301 3.3443847 -4.5773501 8
179.9772 3.3417296 -4.5729694 37
180.25772 3.307971 -4.5307612 22.5
180.41794 3.2157001 -4.4946146 11
182.95645 3.2351437 -4.5945935 10
183.06425 3.2219572 -4.570035 8
183.54584 3.2962415 -4.4492054 18
183.8226 3.3317676 -4.4300003 17
214.37956 3.2185826 -4.5917439 2
169.51346 3.4730775 -4.4349818 24.5
172.05388 3.5243707 -4.4818521 6
179.97923 3.4427171 -4.5550804 36.5
180.05305 3.5180817 -4.4982109 18.75
180.24295 3.4166451 -4.5059834 10
180.47849 3.5164845 -4.524333 12.5
181.93622 3.5874443 -4.591032 2
169.53607 3.7894034 -4.4830203 21
171.73807 3.6663704 -4.5588078 8
179.86542 3.7262433 -4.58009 35.666668
180.07544 3.629195 -4.5228601 18.666666
171.1806 3.9189053 -4.4600391 36
179.86975 3.8726084 -4.572 32.333332
180.13123 3.8445375 -4.5851812 12.5
169.636 4.1256571 -4.4890952 29.5
170.18271 4.1637821 -4.447906 8
170.20097 4.0384293 -4.4558153 8
180.07623 4.1052704 -4.5553756 25.666666
180.24979 4.0392733 -4.5619516 13.5
170.17171 4.3591237 -4.4754148 10
170.24525 4.3899364 -4.4177709 25
170.45476 4.2508917 -4.4302292 20
180.19096 4.2709255 -4.5847044 36
230.58638 4.3055453 -4.518889 3
230.66721 4.2998624 -4.4607239 6
169.62456 4.593605 -4.4469714 38
169.9691 4.4837346 -4.5054407 19
170.22394 4.4760551 -4.4075866 15
171.17046 4.5320568 -4.5541244 7
180.02847 4.4857125 -4.5972476 18
181.18253 4.4849577 -4.5853577 12
181.98839 4.5750799 -4.4440818 16
182.02768 4.555418 -4.4034095 22
182.24866 4.4595847 -4.5520244 21.333334
169.29295 4.7094302 -4.4064846 52
169.54729 4.601984 -4.4798756 27
169.98044 4.6291928 -4.516449 23
175.71051 4.6431141 -4.5806527 9
182.02094 4.6942883 -4.503479 24
168.40497 4.9345055 -4.4089665 22
169.56107 4.9404459 -4.4373512 33
169.67841 4.9506435 -4.4702005 27
169.81107 4.8171215 -4.4222307 34
179.84744 4.9885473 -4.5970769 30.5
181.96448 4.9519992 -4.579062 15.5
182.07913 4.9883919 -4.4159937 18
169.69168 5.0893526 -4.4524899 17
170.03532 5.0538912 -4.4748859 15
172.39377 5.1390505 -4.5257888 22
179.50818 5.1299515 -4.5844221 32.75
179.74542 5.0773983 -4.59937 9
179.84233 5.0046735 -4.5991335 38
181.96243 5.0136805 -4.5500865 14
182.16859 5.1573172 -4.4052238 31
182.25179 5.1846008 -4.4323292 23
169.92621 5.2543263 -4.4148359 26
174.88141 5.2656302 -4.5245886 12
182.08356 5.3693838 -4.5427022 23.5
182.25296 5.2745409 -4.5179358 23.5
182.04111 5.4493189 -4.5624685 31.5
169.94052 5.7046843 -4.4494543 26.200001
170.00264 5.6531286 -4.4693379 22
168.16092 5.9936638 -4.4647231 18
170.10156 5.8310275 -4.4613686 26
170.30592 5.8694181 -4.4432082 33
174.69762 5.8848801 -4.5613341 50
179.53889 5.8859653 -4.5756383 20
179.68008 5.9372702 -4.5763941 14
183.39037 5.8138394 -4.4066448 6
167.93266 6.184926 -4.4505305 14
168.27922 6.0551124 -4.435534 38.5
168.93484 6.090754 -4.4096985 27
170.46213 6.1708255 -4.4685612 10
179.80287 6.0000229 -4.5717244 14
181.9102 6.1536694 -4.5725069 3
182.11823 6.1355743 -4.510108 10
183.01488 6.0323491 -4.5056272 20
169.36497 6.3432412 -4.4053769 63
170.16977 6.2535014 -4.4014387 28
170.27391 6.3043141 -4.4520884 22.5
170.54414 6.3796563 -4.4034395 37
181.18488 6.3419337 -4.539784 5.3333335
182.15292 6.2278929 -4.5210304 24
182.27722 6.3106341 -4.4364028 31.333334
182.56419 6.2260051 -4.415947 25
170.28635 6.4547677 -4.4385014 18.5
170.56042 6.4546113 -4.4203734 25
181.13925 6.4078283 -4.4853153 2
182.12865 6.5320826 -4.4791703 27
182.26775 6.4751577 -4.558455 19
169.37279 6.7275653 -4.4380808 45
170.01175 6.6508884 -4.4187579 10
170.30853 6.7421303 -4.4616108 28
170.43353 6.7707472 -4.4596624 30
170.66675 6.6909399 -4.4314022 24.75
179.45815 6.6729937 -4.4640465 10
182.30392 6.6051965 -4.5525727 20
168.39452 6.9751534 -4.4624786 13
169.8884 6.8904948 -4.44139 21
170.10056 6.8937988 -4.4614148 38
170.25922 6.848093 -4.4503813 23
170.49377 6.9703288 -4.4766941 39
174.52292 6.9266295 -4.5603061 7
174.93832 6.8748984 -4.5704536 7
182.06131 6.837369 -4.499752 19
210.86555 6.852108 -4.4833961 3
168.64604 7.0910382 -4.4068437 37
169.94104 7.1985369 -4.4256907 32.5
170.02756 7.1006117 -4.4231558 31
170.39064 7.1722727 -4.4217958 31
170.59242 7.0533805 -4.5056467 10
173.5706 7.1402402 -4.5449195 7
174.99794 7.0392094 -4.569912 8
182.07974 7.0772805 -4.4976611 7
219.74464 7.1541495 -4.4812808 5
169.29898 7.2771382 -4.4339223 28
169.91006 7.3953109 -4.4217992 21.5
170.55392 7.3607011 -4.4054589 43
170.67548 7.2785635 -4.4044657 21
172.42502 7.2293186 -4.5076895 7
172.74599 7.3764968 -4.5359669 8
173.72574 7.2924623 -4.5464439 8
175.12871 7.3120542 -4.5930014 25
182.27777 7.2959809 -4.4192719 15
219.66873 7.2988849 -4.5178123 6
170.48599 7.4748521 -4.4555769 28.200001
170.66339 7.4875975 -4.4158268 22.5
170.81104 7.5851383 -4.4378281 15
173.87671 7.4534407 -4.5656929 9
179.3672 7.5345669 -4.500905 4
180.38554 7.4623203 -4.4899702 9
180.50156 7.4573278 -4.5438008 4
182.34692 7.5607834 -4.4401064 18
182.47388 7.5429654 -4.5704093 30
209.88947 7.5423489 -4.4231443 4
169.33142 7.6180811 -4.4492278 61
169.9202 7.7641773 -4.4103022 20
170.75407 7.6745448 -4.4755211 16.5
170.89047 7.6730986 -4.4382143 29.6
171.5264 7.6814661 -4.5114999 8.5
173.92526 7.6833773 -4.5758886 8
174.36302 7.6870317 -4.5916381 16
180.66386 7.6714358 -4.453537 1
182.29382 7.7594657 -4.4411573 18
182.52409 7.6694512 -4.4831371 23
169.08778 7.9268084 -4.4696789 30.5
170.11212 7.9516306 -4.4157281 39.5
170.21098 7.9456892 -4.4286785 21
170.49213 7.8937874 -4.4846749 21
170.63855 7.8882432 -4.4303484 24
182.10811 7.8674002 -4.4830484 12
182.25703 7.8331733 -4.4769745 11
168.19749 8.0131187 -4.4026823 15
168.32248 8.1387768 -4.4286966 35
170.1015 8.0266094 -4.4542217 33
170.31883 8.1811676 -4.4166751 30
170.64606 8.0500059 -4.4970326 21
170.95654 8.1570339 -4.4524026 28
171.66141 8.0667801 -4.5401506 9
172.75999 8.0678349 -4.5651331 8
182.33791 8.1113873 -4.4132342 6
168.50101 8.2087717 -4.445889 37
170.38878 8.2049084 -4.4007897 28
174.03224 8.2060432 -4.5661316 15
181.53995 8.2326479 -4.5906987 11
182.1431 8.3209229 -4.4713669 16
182.26149 8.2658844 -4.4912434 12.333333
168.28554 8.5475416 -4.4519396 22
170.0775 8.5164356 -4.4385533 21.75
170.6317 8.5105171 -4.4296875 24
170.87798 8.5436974 -4.4110394 22
171.60959 8.4074249 -4.5518298 8
174.00029 8.4923019 -4.5914731 8
182.17882 8.5224991 -4.5903497 23
169.00894 8.6607151 -4.4923644 42
170.09422 8.7289705 -4.461431 19
170.62811 8.674511 -4.4674788 20
170.91724 8.7074461 -4.4742036 28.25
171.58566 8.6129532 -4.5423212 73
172.8801 8.7519722 -4.5584388 8
181.92613 8.6272564 -4.5880499 6
182.21646 8.6526556 -4.4164386 8
169.54041 8.8468208 -4.4017582 27
170.36084 8.8964376 -4.4435763 18.5
170.40894 8.9414635 -4.4724622 23
170.70401 8.9442348 -4.455781 18
170.91081 8.9073114 -4.4466095 23.200001
171.12752 8.9747086 -4.5193291 24
179.17717 8.9512548 -4.5779295 17.333334
181.883 8.9139614 -4.4639206 30
182.13878 8.9237795 -4.4416428 14.4
182.35675 8.9713669 -4.4837418 15.5
168.31995 9.1627932 -4.4008274 24
168.55685 9.1333427 -4.4321136 22
168.64346 9.0244627 -4.4221377 22
169.48824 9.1172123 -4.4648547 26.5
170.18486 9.1441669 -4.4619284 15
170.40282 9.1087875 -4.4393873 45
170.68678 9.177496 -4.4617305 32
170.84148 9.1112795 -4.4546041 29.5
171.73895 9.1992588 -4.5441332 16
172.1597 9.0330257 -4.5655355 23
175.68538 9.1240997 -4.5993218 9
182.20946 9.0583858 -4.5858183 18
170.29962 9.318696 -4.4510808 27.5
170.43979 9.3335867 -4.4883866 30
170.68954 9.3015823 -4.4612923 29
170.84476 9.258667 -4.5172191 22.75
171.07126 9.2767601 -4.4722857 23.25
171.6723 9.3222094 -4.5491104 30
172.55223 9.3238831 -4.5890107 7
181.94257 9.3317261 -4.5833731 18.5
182.08298 9.3486023 -4.5084677 22.5
182.25719 9.3413334 -4.5885329 26
168.44817 9.5143929 -4.417593 15
170.65378 9.5642176 -4.5080433 37
170.98885 9.4396372 -4.5430384 31
171.07373 9.4698029 -4.5469055 30.5
171.72839 9.5000572 -4.5799999 33.5
179.11914 9.533783 -4.5665722 24
182.48717 9.5150118 -4.5988612 21
185.06694 9.5078945 -4.4220686 13
168.79428 9.7601814 -4.462028 44
169.33252 9.6488018 -4.4607897 18
169.71317 9.6839657 -4.4148402 36
170.14227 9.699625 -4.4070392 18
170.33804 9.6978626 -4.4183364 37
170.78949 9.6317482 -4.4589911 21.5
170.89693 9.6727619 -4.4611778 33.75
171.05489 9.7265415 -4.4391823 34
171.27611 9.7092953 -4.5818048 8
179.15602 9.6979408 -4.5975695 17.5
179.31647 9.6448612 -4.5796027 1
181.76265 9.7548122 -4.5988989 42
182.27292 9.6856422 -4.5417156 9
169.67482 9.877346 -4.417223 40.25
170.29443 9.9759645 -4.4170585 33
170.80701 9.9056501 -4.4869628 57
171.07169 9.9056454 -4.4603333 33.400002
171.3242 9.8524141 -4.5875988 17.333334
172.08713 9.8445168 -4.5989108 7
174.96638 9.9815655 -4.5832429 8
179.12663 9.9884968 -4.5834312 64
179.70222 9.9325628 -4.4857912 4.6666665
179.9919 9.9797611 -4.4451838 8
181.92993 9.947299 -4.5329218 31.333334
170.51422 10.127193 -4.4361129 35.5
170.88562 10.097352 -4.4533405 26.75
179.35648 10.083626 -4.5917654 1
179.72131 10.026608 -4.5286937 11.666667
179.94731 10.01148 -4.4397497 6
181.77182 10.057634 -4.5789118 19
181.93079 10.152037 -4.5277567 19
182.16949 10.122608 -4.4565277 14
182.20599 10.183455 -4.4607172 15
169.29164 10.366749 -4.4874325 28
170.18372 10.221106 -4.4604683 29
170.24261 10.302238 -4.4383125 27.5
170.64893 10.357597 -4.4096298 28.75
170.87921 10.324399 -4.5478578 23.333334
171.08212 10.273602 -4.4507732 28.25
174.56152 10.370686 -4.5773849 8
181.80356 10.395163 -4.5945172 22
169.2579 10.543549 -4.5076013 30
169.74454 10.41659 -4.4983068 37
170.33292 10.50062 -4.4943905 30.5
170.53143 10.443275 -4.5027738 10
170.78703 10.556711 -4.4199915 20
170.91702 10.48731 -4.479176 38.875
171.05695 10.598517 -4.4802723 27
171.23834 10.424752 -4.5228338 23
181.84628 10.453677 -4.5475106 26.5
182.09326 10.446976 -4.458353 17
182.25201 10.444948 -4.5232496 14
169.57202 10.696125 -4.4454107 37
169.85678 10.619624 -4.4053826 31
170.57388 10.747281 -4.4809561 31
170.6871 10.664812 -4.5237136 28
170.89372 10.683963 -4.4495797 40.714287
171.19768 10.735828 -4.4056268 21
171.23424 10.726555 -4.4907002 21.666666
182.10777 10.668354 -4.5456562 18.75
169.57024 10.823231 -4.4451385 28
169.76704 10.832778 -4.4349432 19
169.83325 10.99638 -4.4344387 31
170.33978 10.921858 -4.4465618 35
170.58167 10.851287 -4.5083427 27
170.91077 10.88356 -4.4580984 24.666666
171.0874 10.897498 -4.5444469 18.5
171.26201 10.865081 -4.4220395 32
181.90619 10.828321 -4.5648165 11.5
182.04051 10.91138 -4.5408354 6
170.34889 11.098736 -4.4359117 33.333332
170.71378 11.174803 -4.4129419 45
170.85097 11.071346 -4.4838333 26.5
171.14105 11.1021 -4.4811754 26
182.15968 11.001518 -4.5471559 7
195.20476 11.12892 -4.4253688 7
195.74722 11.151889 -4.486218 7
170.51564 11.301691 -4.488184 22
170.70326 11.237226 -4.4052138 37
171.06819 11.396324 -4.4371524 21
171.27577 11.279054 -4.4465427 20.333334
181.73343 11.324858 -4.5034847 7.5
168.77455 11.469238 -4.4317627 15
168.86966 11.501265 -4.4629302 28
170.30319 11.48024 -4.4940991 11
170.47031 11.578819 -4.4710093 31
170.97717 11.448965 -4.4585562 25
171.09036 11.510296 -4.5145245 23
171.22633 11.565056 -4.5425763 34
169.26752 11.783924 -4.4108477 27
170.62006 11.736593 -4.4625468 40.5
170.87805 11.722702 -4.4387159 28.333334
171.00381 11.71501 -4.434885 11
171.26558 11.745393 -4.4677615 26.666666
181.7608 11.719332 -4.5532594 15
195.34109 11.646157 -4.490015 7
195.81104 11.736561 -4.4549837 7
168.96082 11.943851 -4.4336262 28
169.00531 11.944024 -4.4341125 16
170.4776 11.880437 -4.4699063 36.666668
170.73999 11.866974 -4.4421887 25.333334
170.92897 11.808481 -4.4379787 24
171.11571 11.93497 -4.4863534 37
179.39278 11.9771 -4.5797319 9
181.69827 11.854791 -4.4725633 3
181.94159 11.832136 -4.5842485 12
195.78775 11.897513 -4.4905643 10.5
195.84846 11.962643 -4.491684 14
169.16924 12.185177 -4.4887929 22
170.37773 12.062522 -4.4965477 9
170.48039 12.100321 -4.4619398 31.25
170.89223 12.014902 -4.492806 29
171.05716 12.060407 -4.5221677 29.375
171.34366 12.10878 -4.4791384 28.299999
171.4552 12.174996 -4.4509363 22
181.56142 12.086657 -4.4947429 10
195.99219 12.007139 -4.4327493 7
168.78642 12.392754 -4.4726229 16
168.99298 12.212368 -4.4149313 22
169.06764 12.316656 -4.4252434 35
169.54269 12.372616 -4.5185914 41
169.994 12.284832 -4.4689217 26
170.0112 12.341665 -4.4461575 27
170.22237 12.346981 -4.4414983 24
170.42389 12.356143 -4.4877524 28
170.72014 12.248535 -4.4252777 28
170.9135 12.308482 -4.4545274 29
171.05945 12.301161 -4.4941459 23
171.28401 12.295259 -4.5120959 24.166666
181.89235 12.390423 -4.5303221 12
168.83836 12.501463 -4.402173 15
169.10211 12.47357 -4.4216871 17
169.4807 12.50474 -4.5141783 20.25
170.47485 12.44313 -4.4100266 22
170.67493 12.483806 -4.5020347 28.166666
171.10168 12.579451 -4.567811 33.5
171.23799 12.579126 -4.5237951 28
181.88417 12.427658 -4.5585051 20
195.72997 12.456729 -4.4703956 7
169.75806 12.74017 -4.4880762 34.5
170.29001 12.736979 -4.5225892 25.25
170.47594 12.654185 -4.5074129 16.75
170.93823 12.67412 -4.5368881 29.5
171.0993 12.637705 -4.5712047 31
171.22627 12.723558 -4.4829874 30
181.92017 12.734935 -4.5111518 10
229.96014 12.687875 -4.4908204 15
230.08406 12.708304 -4.513865 12.833333
230.24338 12.68542 -4.5452037 10
168.92128 12.93338 -4.4531918 34
169.18054 12.887167 -4.4050245 43
169.20135 12.881869 -4.4345398 42
169.47433 12.892493 -4.4456921 29.75
170.505 12.869599 -4.4832897 33.5
170.77652 12.914331 -4.5123568 37
170.91341 12.950216 -4.4929562 10
171.26204 12.883528 -4.5076747 25
171.44986 12.858732 -4.4248624 27.5
181.92091 12.830009 -4.5927234 23
230.01889 12.847981 -4.5225611 13
169.04175 13.01725 -4.4634271 15
169.25949 13.197881 -4.4746923 22
169.48392 13.110837 -4.4715652 31.5
169.74226 13.119736 -4.4935789 58
169.96475 13.173099 -4.4903488 42
170.3381 13.169847 -4.5345802 26.5
170.40059 13.052757 -4.5993629 29
171.33321 13.095963 -4.5301495 28.666666
181.99992 13.119667 -4.5727239 10
169.56686 13.260658 -4.4825573 25.5
169.82378 13.292776 -4.5182123 18
170.34836 13.307128 -4.4957986 55
170.46716 13.342272 -4.5182986 30
170.62622 13.393738 -4.4663105 27.5
170.96091 13.208115 -4.4796715 28
171.11238 13.340936 -4.4893718 31.5
171.32692 13.281001 -4.4517589 21.5
181.78368 13.225242 -4.5259724 2
169.01369 13.491691 -4.4938974 15
169.58771 13.542614 -4.4196491 21
169.6257 13.457706 -4.4720211 44.5
169.90453 13.501222 -4.4875412 31.5
170.0482 13.577918 -4.511395 31
170.48814 13.448655 -4.5477796 30
170.65173 13.449777 -4.4485888 20
170.87701 13.465311 -4.5001068 23.5
171.1534 13.498507 -4.465589 22.666666
171.43964 13.447838 -4.459671 20
169.26904 13.711264 -4.4727569 19
169.77431 13.715414 -4.4584899 21
170.07224 13.729612 -4.4463615 12.5
170.87926 13.71797 -4.5778894 25.5
171.11925 13.683167 -4.5011802 33
171.30133 13.705161 -4.4387031 33.333332
171.52399 13.710293 -4.475688 38.25
182.62213 13.634976 -4.454206 5
168.28763 13.875784 -4.4082232 16
169.90538 13.94437 -4.4073534 30
170.06708 13.870989 -4.446846 25.5
170.50006 13.826652 -4.5227056 28
170.91159 13.893099 -4.5129499 32.5
171.10219 13.908052 -4.514411 33.5
171.3248 13.925345 -4.4900727 30.25
171.44241 13.953799 -4.5229406 38.125
168.40549 14.156595 -4.4117575 28
169.72516 14.031814 -4.4070954 10
169.96593 14.18622 -4.4855633 28
170.11053 14.14414 -4.4503002 28.75
170.47847 14.18113 -4.4547381 17
170.66187 14.100008 -4.4744539 29.75
170.82782 14.136086 -4.4832649 38.5
171.09302 14.118398 -4.525064 37.5
171.31839 14.078687 -4.4964476 29
184.12724 14.197968 -4.4585228 19
168.66205 14.334263 -4.4356513 22
169.68822 14.23656 -4.4588795 33
169.8331 14.320396 -4.4826393 35.5
170.05981 14.396625 -4.5089207 27
170.29193 14.3047 -4.5155354 16
170.50323 14.310863 -4.5023813 51
170.64658 14.25631 -4.4746122 38
170.88876 14.388239 -4.4832926 25
184.048 14.23394 -4.4615006 22
184.20428 14.389963 -4.5414844 7
169.23497 14.422557 -4.4312034 45
169.86685 14.429081 -4.4496269 15
170.12341 14.55472 -4.5331101 26
170.53673 14.508772 -4.5650005 19
170.79517 14.565192 -4.5128942 41
170.8916 14.461766 -4.5076218 28.666666
171.10144 14.491591 -4.5416756 22.25
171.32329 14.470408 -4.4800544 25.666666
171.49706 14.596992 -4.5148954 22
168.82967 14.687676 -4.4029226 15
169.34114 14.683171 -4.4751935 30.5
169.68301 14.642906 -4.4596386 39
170.14027 14.646892 -4.4814172 30
170.29987 14.789487 -4.4900761 28
170.51178 14.727642 -4.5184517 32.5
170.63892 14.750634 -4.5846863 48
171.17046 14.645973 -4.5669718 36
171.36972 14.789126 -4.522542 36
171.51347 14.702556 -4.544641 36.333332
168.53474 14.990903 -4.4512486 35
169.29576 14.90948 -4.4411769 19
169.51245 14.897114 -4.4671965 26
169.69084 14.830698 -4.511416 30
170.31642 14.843455 -4.4577661 33
170.50673 14.928967 -4.4679103 22.75
170.72383 14.847394 -4.5222435 26
170.92175 14.873733 -4.5111814 34.625
171.18008 14.958616 -4.4975061 30.5
171.2928 14.91002 -4.5102921 32.333332
169.12106 15.046197 -4.5170426 26
169.47354 15.117455 -4.4243126 17
170.08855 15.111188 -4.4397311 32.666668
170.53374 15.138064 -4.4971662 27.166666
170.78212 15.087067 -4.5800447 39
171.12903 15.032196 -4.5288029 28
171.27089 15.151431 -4.5151477 31.833334
171.43016 15.144002 -4.5440598 30
168.30432 15.330653 -4.4243898 27.5
168.87209 15.200261 -4.4343572 28
169.0631 15.21816 -4.4181781 20
169.51691 15.358784 -4.4240637 37
169.71152 15.366513 -4.5317669 39
169.9115 15.342356 -4.5153985 22
170.10086 15.337406 -4.461246 32
170.29015 15.306984 -4.5280609 35
170.68512 15.292066 -4.546567 20
170.99312 15.237357 -4.4980388 26
171.01511 15.374269 -4.5141754 29.5
171.20164 15.266423 -4.5545993 19
171.44431 15.30783 -4.5348897 11
183.04478 15.345871 -4.4456339 1
168.06523 15.540377 -4.4134445 15
169.21925 15.5007 -4.4120216 19
169.71297 15.52695 -4.5294075 37
170.15608 15.58982 -4.4530802 22
170.39598 15.596199 -4.5676632 50
170.52209 15.451065 -4.5020895 31
170.66623 15.471477 -4.499814 29
170.89575 15.578274 -4.4830723 29
171.12306 15.51205 -4.526792 24.666666
171.33563 15.503155 -4.5427399 39.75
171.4709 15.527698 -4.5230551 39
169.3476 15.622623 -4.4311218 25
169.63097 15.758089 -4.4093237 26
169.87447 15.705668 -4.4341769 28
170.13654 15.622273 -4.4305816 20
170.21875 15.632524 -4.5278673 26
170.53531 15.759838 -4.5169525 22
170.77698 15.730415 -4.4988265 22
170.94041 15.721501 -4.4731832 29
171.08276 15.62114 -4.5100083 27.666666
171.42854 15.731155 -4.5333714 29.666666
171.68341 15.728644 -4.5961666 33.5
169.69949 15.866013 -4.4803715 29
169.93591 15.910285 -4.499836 26
170.31331 15.97893 -4.550468 21
170.5154 15.875127 -4.4388485 22.333334
170.88635 15.858365 -4.5319567 30
171.05945 15.86228 -4.5358829 33.833332
171.51599 15.968032 -4.4593692 18.333334
171.62189 15.880791 -4.5112567 19
182.2565 15.990051 -4.5803676 18
182.51901 15.990012 -4.5794744 4
168.7363 16.052723 -4.4365783 16
168.91835 16.152037 -4.5202603 15
169.31294 16.00531 -4.4731407 9
169.82886 16.087656 -4.5547252 37
170.12317 16.013292 -4.5407085 28
170.35828 16.056013 -4.4405351 36
170.47356 16.143885 -4.4654288 27
170.60855 16.158321 -4.5243602 37
170.83904 16.071739 -4.5687518 29.333334
171.05803 16.098215 -4.5153069 34.166668
182.29082 16.097195 -4.4973617 22
168.9944 16.365717 -4.4049568 11
169.1508 16.311954 -4.4957275 28
169.39357 16.301558 -4.4554687 21
169.40846 16.389332 -4.5154362 19
169.70959 16.39333 -4.53474 41
169.87057 16.34128 -4.5414438 35
170.02666 16.286903 -4.4584937 35.333332
170.25374 16.342075 -4.5589895 29.5
170.54527 16.272923 -4.520731 31.666666
171.02843 16.330986 -4.5549545 33.5
171.22565 16.30616 -4.5329528 55
182.67017 16.319746 -4.5167904 3
168.47493 16.448647 -4.4034119 21
169.26274 16.402718 -4.4304562 33
169.54253 16.522814 -4.4133539 31.5
169.79549 16.489098 -4.551856 31
170.09218 16.468613 -4.5229363 28
170.5007 16.486919 -4.5380716 24
170.63254 16.477291 -4.5341997 19
170.92801 16.438454 -4.5983801 27
171.07361 16.473276 -4.4824209 38.75
171.28375 16.560215 -4.5541964 31
171.60645 16.525057 -4.5255094 27
182.30608 16.56225 -4.5086579 17
182.51665 16.593391 -4.4214096 14
168.71576 16.655519 -4.4381585 27
169.49161 16.639257 -4.4674978 17
169.68655 16.741344 -4.4307985 25.5
169.96387 16.630342 -4.4955807 36
170.09689 16.752235 -4.4781818 31
170.2207 16.706575 -4.5829115 21
170.69989 16.703175 -4.5381145 24
170.92328 16.694138 -4.5956831 28.333334
171.07455 16.67519 -4.4905968 14.5
171.36525 16.643623 -4.5172443 41
171.49931 16.740942 -4.5213957 23.666666
182.4707 16.722942 -4.4934416 14
183.05582 16.633858 -4.5235014 13
193.83408 16.742168 -4.4698257 7
360.89679 16.734961 -4.5789146 4
168.65114 16.889992 -4.4062915 19
169.4679 16.862799 -4.4405475 24
169.69778 16.904337 -4.5580249 37.5
169.95222 16.824509 -4.5666037 19
170.073 16.936691 -4.4857917 26
170.51511 16.970448 -4.5317397 28
170.91216 16.883404 -4.5649738 29.5
171.00058 16.803171 -4.5239553 38
171.2906 16.943541 -4.5143476 34
171.44051 16.885506 -4.5957155 22
182.65359 16.997339 -4.5915451 4
360.93817 16.889219 -4.5390444 10
168.64999 17.032761 -4.43435 18
169.34117 17.093031 -4.5183578 31
169.54774 17.186195 -4.437871 37
169.80869 17.126591 -4.4430966 24
170.88109 17.16115 -4.5732288 22
171.00664 17.028093 -4.531827 38
171.28392 17.028549 -4.4738684 33.5
171.46989 17.137953 -4.5061841 37.666668
182.23073 17.031921 -4.5698495 33
168.65211 17.320654 -4.4332957 30
169.87161 17.28686 -4.4275255 19
170.0975 17.31588 -4.5177412 25
170.31847 17.34959 -4.4738636 47.75
170.51967 17.222109 -4.4780302 15
170.86699 17.330395 -4.4785619 15
171.48929 17.294069 -4.5144644 19.125
171.66025 17.37957 -4.561429 28
172.1982 17.287754 -4.5765195 1
182.40154 17.305737 -4.5387774 10
182.65285 17.252449 -4.5125408 26
168.69865 17.442726 -4.4322085 19
169.78418 17.513597 -4.558013 48
170.13885 17.442144 -4.4929128 42
170.83839 17.400867 -4.5938563 28
171.12772 17.498001 -4.4628716 36.5
171.31056 17.51078 -4.5189657 27.5
171.66516 17.459995 -4.5279174 38
171.96532 17.513466 -4.5547915 19.166666
172.11719 17.531729 -4.5276661 17
182.73618 17.482574 -4.4110775 3
182.88884 17.504353 -4.5069275 24.5
168.73636 17.789698 -4.4499931 22
169.31259 17.62858 -4.4934249 22
169.47853 17.700603 -4.4744873 26
169.68033 17.658657 -4.4203963 24.5
169.90077 17.714098 -4.563868 49
170.53458 17.689081 -4.4858217 47.5
170.67072 17.653399 -4.467011 35.666668
170.83066 17.663097 -4.5021772 37
171.10303 17.659311 -4.5425372 22.25
171.28979 17.739029 -4.5556021 31.200001
171.49431 17.69038 -4.5322871 25
171.70692 17.680164 -4.5146298 30.625
183.73285 17.646244 -4.5342584 23
168.77628 17.924063 -4.4548841 22
169.45456 17.885765 -4.4777746 24
169.65996 17.91633 -4.5449758 24
170.26492 17.805979 -4.4702477 31
170.82719 17.884453 -4.5568943 39
171.08398 17.841705 -4.5465679 8.5
171.28992 17.903847 -4.5530825 28.333332
171.4799 17.982977 -4.5154324 33
171.63844 17.907494 -4.4592142 21
182.33766 17.844633 -4.5576725 1
182.71564 17.813343 -4.5083327 3
169.60287 18.017504 -4.4218502 30
169.97787 18.090321 -4.4196019 28.5
170.27887 18.181475 -4.4941492 33
170.42668 18.033129 -4.460649 15
170.82111 18.109104 -4.5611334 30
171.47734 18.113012 -4.5241728 21.799999
183.70357 18.183428 -4.4548473 20
169.50737 18.231123 -4.4077415 14
170.36121 18.369781 -4.5444999 26
170.99525 18.209749 -4.5678868 30
171.09413 18.296177 -4.520802 20.5
171.31717 18.34243 -4.5058379 29
171.52359 18.29179 -4.5922828 22
182.55185 18.362339 -4.5751729 1
183.76353 18.372025 -4.4693327 14
170.57693 18.556877 -4.505394 35
170.76982 18.542974 -4.5502172 31
170.89368 18.496376 -4.4949841 18.666666
171.19025 18.568172 -4.4552984 26.5
171.37556 18.469276 -4.5265317 29
171.53302 18.469872 -4.5042019 29.75
171.72276 18.588211 -4.5398026 32
183.74255 18.421921 -4.4466519 3
170.55093 18.643244 -4.4382825 15
171.14752 18.687702 -4.5858612 23
171.34833 18.763229 -4.5180588 24.333334
171.44273 18.787039 -4.5521049 23
171.67017 18.781811 -4.4017973 31
182.6479 18.786047 -4.5827961 10
183.618 18.737324 -4.549408 19
169.24371 18.813881 -4.4032841 34
170.75525 18.84153 -4.4587665 30
171.19527 18.851406 -4.4527478 23
171.39961 18.997358 -4.4695807 22
171.49384 18.832733 -4.5229497 34
171.70686 18.921656 -4.5299892 33.5
171.86935 18.88015 -4.4983091 27.25
170.77304 19.008337 -4.4513502 6
171.56017 19.080803 -4.5177255 32.333332
171.62688 19.095888 -4.5498586 31.666666
171.92654 19.076426 -4.5538898 35.5
171.2836 19.335409 -4.5735931 32
171.72719 19.307253 -4.5163007 35
181.44994 19.20787 -4.5721912 1
170.94496 19.421825 -4.4348927 21
171.36916 19.547581 -4.4658313 21
171.59624 19.576719 -4.5357456 28
171.71707 19.487295 -4.4576254 29.799999
171.88528 19.578049 -4.5141678 45.5
171.23886 19.723389 -4.5628366 15
171.58356 19.69825 -4.5489359 29
171.67285 19.71826 -4.478931 24.690477
171.86276 19.710295 -4.503624 31.25
182.84088 19.646379 -4.4532161 7
171.03656 19.969103 -4.4044027 13
171.55881 19.968857 -4.5294652 23.25
171.74313 19.922344 -4.5226345 17.5
171.83786 19.887503 -4.4749689 31
182.51474 19.879436 -4.5113516 3
183.82486 19.974651 -4.4695945 1
170.90741 20.031977 -4.4139023 32
171.33519 20.119354 -4.509409 16.5
171.52136 20.098764 -4.5053301 27
171.74727 20.155054 -4.4971714 17.666666
171.87376 20.158085 -4.4862604 16.5
169.959 20.302399 -4.4490585 17
170.68546 20.315399 -4.5360346 35
170.99693 20.358088 -4.4767232 15
171.16193 20.303806 -4.478066 17
171.24196 20.367058 -4.518877 16
171.44153 20.333584 -4.5273471 12
171.7093 20.320229 -4.4456615 14
171.87086 20.320929 -4.486093 25
169.68195 20.563284 -4.4870405 19
170.71764 20.520901 -4.5230498 20.571428
171.13785 20.469667 -4.4953022 22
171.31966 20.455826 -4.447854 13
171.54085 20.510036 -4.5593734 28
171.71028 20.438772 -4.4287319 25.944445
172.16869 20.575693 -4.4776173 12
182.30707 20.567284 -4.5660329 11
170.72725 20.702858 -4.5352297 29
170.81534 20.71302 -4.5561638 26
171.76286 20.751343 -4.5293627 23
171.92314 20.775599 -4.5517411 33.666668
172.19786 20.616413 -4.5167565 23
170.88127 20.862822 -4.5645146 26
171.04031 20.938108 -4.5785737 27.5
171.21477 20.955963 -4.5711322 24
171.6909 20.913332 -4.4811673 31
171.84479 20.90897 -4.4801788 33.5
182.61882 20.863647 -4.5398622 3
170.35109 21.112917 -4.5224328 27
170.5466 21.096272 -4.4905472 23.5
170.8181 21.054169 -4.5557122 27
171.79222 21.100039 -4.5033946 42
171.85541 21.037792 -4.4721155 13.25
172.23572 21.171682 -4.5998487 11
170.31931 21.327202 -4.4649644 16
170.51373 21.378134 -4.4907665 50
170.7173 21.266279 -4.5315862 16
170.81201 21.248009 -4.5601778 26.5
171.02057 21.208035 -4.5728722 35
171.67743 21.308022 -4.5641394 24
171.8271 21.2889 -4.5235782 22.666666
170.08662 21.541018 -4.5098844 20
170.23729 21.499231 -4.4680042 26
170.52464 21.469864 -4.5076451 35
170.78104 21.45771 -4.560792 40
170.82591 21.574179 -4.4344535 10
171.01497 21.467726 -4.5755706 23
171.89201 21.47768 -4.4509301 22
170.12801 21.784056 -4.5612788 13
170.25761 21.713768 -4.4679737 23.5
170.53484 21.749529 -4.4662418 12
170.99979 21.602139 -4.5125666 30
171.6187 21.739861 -4.547955 25.75
182.66095 21.714207 -4.4989667 4
169.71756 21.849142 -4.4190254 13
170.09143 21.901352 -4.4393778 16.25
170.93738 21.915932 -4.5686812 23
171.50156 21.855619 -4.5514612 29.5
171.60759 21.876898 -4.5119886 3
182.37164 21.994465 -4.5193825 10
170.62903 22.184431 -4.5999088 13
170.89838 22.116669 -4.5953317 33
169.65144 22.387756 -4.459383 11
170.08998 22.241783 -4.4830031 17
170.89554 22.229696 -4.5852356 22
171.03731 22.276209 -4.5754919 31
171.34129 22.270124 -4.5347476 24.333334
169.6727 22.559624 -4.5285892 20.5
169.86852 22.511103 -4.5191917 17
170.09641 22.504686 -4.5449247 19.5
170.29391 22.431675 -4.5564246 29
170.78107 22.573679 -4.5832253 18
170.87967 22.488762 -4.4403906 11.5
171.05534 22.505774 -4.5446391 16.333334
171.27397 22.477873 -4.5715122 15
171.95108 22.569912 -4.5322342 12
169.7164 22.632236 -4.4694128 37
170.89111 22.69957 -4.5351877 12.666667
171.08255 22.660969 -4.5173922 20.25
171.33936 22.657667 -4.5898709 30
171.97276 22.611597 -4.4210033 11.333333
181.59512 22.737898 -4.44102 1
181.61064 22.77146 -4.5934029 13
182.98492 22.66123 -4.4809628 4
169.64015 22.987474 -4.5182104 19
169.88864 22.9823 -4.5263538 14
170.91139 22.93858 -4.5593061 15
171.00209 22.896488 -4.5917149 12
171.48816 22.808348 -4.579607 31
182.33783 22.991871 -4.5835991 3
182.46063 22.891001 -4.4976239 15
182.86835 22.999313 -4.5268393 3
183.11514 22.901886 -4.5368977 5
169.96625 23.086407 -4.4099774 8
170.1803 23.114975 -4.5678205 11
171.16406 23.157022 -4.545002 16
171.3726 23.060814 -4.5575433 22
171.46173 23.127419 -4.4943304 12.5
171.91115 23.070059 -4.5774145 15
175.13367 23.19792 -4.5193596 39
182.50992 23.121044 -4.4715662 10.25
182.87888 23.127899 -4.5147848 3
183.48933 23.133223 -4.5490146 8
169.79599 23.324917 -4.4932771 16
170.06512 23.367775 -4.4918919 17
170.92065 23.255644 -4.4866633 17
171.00031 23.215221 -4.5688148 16
182.42482 23.255203 -4.5222878 10
168.99196 23.538794 -4.4277239 13
169.71899 23.419205 -4.4620862 16
169.90077 23.540674 -4.4629841 14.333333
170.0507 23.535854 -4.493022 14
170.83783 23.417065 -4.5715222 21
171.04451 23.509155 -4.5246129 14.666667
171.35835 23.554853 -4.5786037 19.5
171.88776 23.570591 -4.5286794 34.466667
169.08228 23.799269 -4.4216938 16
169.54842 23.630833 -4.5289841 22
169.679 23.688599 -4.4740753 19
170.54051 23.723251 -4.5655289 30
170.63177 23.738594 -4.5685153 22
171.12299 23.649582 -4.5280576 13.5
171.91685 23.624451 -4.517787 6.5
169.1969 23.825539 -4.4271002 17
169.38815 23.931702 -4.4105492 16
169.62769 23.909967 -4.4292045 9
169.87975 23.96608 -4.4852972 30
170.0864 23.921625 -4.4750471 19
170.29285 23.936722 -4.5413017 13.5
170.50316 23.845459 -4.5658841 24
170.68185 23.879454 -4.58463 23
171.26408 23.949478 -4.5726829 21
182.51749 23.836319 -4.4768801 1
169.54401 24.10498 -4.5058064 12
169.72119 24.001183 -4.521287 15
169.86261 24.052845 -4.5208941 16
170.06401 24.119003 -4.5119209 16.5
170.24988 24.175266 -4.5334802 16
171.22852 24.056259 -4.4122767 22
171.60941 24.177872 -4.5892692 33
175.12296 24.18074 -4.5312977 32
169.58733 24.286428 -4.5328979 14
169.61856 24.351826 -4.5165644 17
169.98494 24.335306 -4.4809637 13.5
170.00925 24.304771 -4.5215359 16.5
170.69083 24.375515 -4.5636568 25.5
171.66431 24.289371 -4.5825453 23.799999
169.57692 24.505816 -4.473135 13
169.7989 24.426117 -4.5426364 26
169.87885 24.467312 -4.4532199 14.5
170.15158 24.493132 -4.5091496 17.5
170.70248 24.456196 -4.5444975 26
170.87825 24.492987 -4.5723038 26.75
171.0406 24.414568 -4.5895576 22
169.45305 24.748941 -4.4237108 24
169.68991 24.745388 -4.5521817 23.5
169.82326 24.602968 -4.4556885 21
170.06285 24.749975 -4.595983 12
170.75063 24.792374 -4.4951534 19
171.12872 24.740923 -4.5631247 39
169.39316 24.890335 -4.4418592 19
169.53262 24.940689 -4.454689 16.333334
169.76999 24.896214 -4.417798 24
169.90681 24.979332 -4.4822206 21.5
170.05673 24.839554 -4.5088701 20.5
170.70822 24.839748 -4.5255842 32
182.30423 24.877136 -4.5459604 17.6
182.49655 24.956951 -4.5297594 16
169.29987 25.051136 -4.432271 24
169.47804 25.073948 -4.4299054 26.5
169.74153 25.030502 -4.4863915 13
169.93851 25.114899 -4.4132423 21.5
170.11516 25.119873 -4.5130281 29
170.84264 25.091665 -4.5987844 52
182.63127 25.108364 -4.563611 14
169.3647 25.367386 -4.4197922 15
169.51836 25.312742 -4.4259357 15.333333
169.63257 25.380829 -4.5821328 20.5
169.92427 25.308447 -4.5496006 23.75
170.1378 25.3382 -4.4890952 4
170.78833 25.211023 -4.5724382 37
170.93869 25.308992 -4.5519257 14.2
171.05328 25.349274 -4.5588875 14.25
169.33609 25.5151 -4.4333801 13
169.4521 25.569759 -4.5052071 16
169.62065 25.52882 -4.5296412 17
169.84692 25.585966 -4.5507679 16
171.18323 25.464397 -4.5740933 6
182.39642 25.409384 -4.5824494 5
169.10712 25.730217 -4.4586062 14
169.38293 25.637739 -4.4493165 13
169.4207 25.687658 -4.4688272 20.166666
169.69562 25.673721 -4.5370016 21
170.02841 25.723919 -4.566432 15
170.43806 25.7376 -4.5897231 25
171.00342 25.626551 -4.5702491 21
171.68077 25.605551 -4.5883913 17
182.37692 25.646736 -4.5983205 3
169.10344 25.978514 -4.4123993 18
169.36813 25.821875 -4.4224443 22
169.47342 25.971245 -4.4638343 11
169.64334 25.870981 -4.5508366 14
169.86957 25.843868 -4.564363 19
169.03943 26.108734 -4.4553881 17
169.51637 26.085512 -4.5265617 27.666666
169.74954 26.076826 -4.5439501 24
182.47653 26.176655 -4.5715876 3
182.78496 26.089235 -4.5602045 1
168.92088 26.312828 -4.4261827 13
169.18309 26.381559 -4.4702578 18
169.42361 26.277422 -4.5376596 27
169.75398 26.236336 -4.5949783 43
169.93333 26.271612 -4.5358505 24.333334
170.0657 26.25701 -4.4873977 14.6
170.31416 26.380745 -4.5463438 58
169.2355 26.414553 -4.4588523 22.5
169.91664 26.530478 -4.5427356 56
170.13911 26.530926 -4.5180707 19
170.31035 26.432243 -4.5670862 46
170.51022 26.509691 -4.5892091 65
182.32886 26.594454 -4.5259795 14
168.8596 26.6334 -4.503809 33
169.76508 26.768555 -4.5533228 28
170.05461 26.673559 -4.5189352 30.666666
170.21404 26.64064 -4.5817604 40
181.27429 26.76034 -4.4805245 4.6666665
182.30313 26.7334 -4.5643277 14.75
168.90503 26.877907 -4.5017176 26
169.14902 26.86153 -4.5443568 29
169.73154 26.871101 -4.4635282 21.5
170.13852 26.801102 -4.528573 50
182.3439 26.882626 -4.5007052 9
169.79741 27.192129 -4.570302 24
169.87106 27.071413 -4.5674696 34.5
170.21941 27.025715 -4.5329423 55
170.40125 27.013052 -4.4784598 45
172.05266 27.167574 -4.5513191 9.666667
182.34851 27.0732 -4.5237594 5
169.58801 27.325884 -4.5204167 13
169.7693 27.343727 -4.5200691 11
170.36732 27.346352 -4.5894279 52
171.80759 27.353844 -4.5540075 5
169.99979 27.569387 -4.5171824 29
170.16144 27.529263 -4.5863667 45.5
170.21152 27.537203 -4.5714645 42
171.74379 27.414339 -4.5794864 23
182.44315 27.418743 -4.5911045 7
169.19238 27.789591 -4.539475 29
169.58267 27.737148 -4.456337 10.5
169.69846 27.713322 -4.4565883 24.5
169.95477 27.686487 -4.4816608 30
170.03094 27.658556 -4.4921074 19
180.04944 27.644968 -4.5964537 16
169.05287 27.949633 -4.4185057 24
169.67055 27.903904 -4.4929795 20
169.84215 27.826885 -4.5948558 26
170.47079 27.805058 -4.5891647 26
170.6432 27.881142 -4.5875478 51
169.68959 28.067305 -4.4750552 27.666666
169.87941 28.117289 -4.476202 22
170.16473 28.147945 -4.5522203 26
170.51247 28.153011 -4.524539 1
170.77858 28.188263 -4.4922752 5
170.86957 28.182066 -4.4807253 5
169.3475 28.34374 -4.5150514 33
169.7007 28.27767 -4.4540753 14.5
169.8364 28.259094 -4.4439831 13
170.12622 28.276529 -4.5624852 28.666666
170.53862 28.362661 -4.5183587 10
170.62866 28.250805 -4.5905519 39
182.71635 28.253426 -4.599051 4
169.71777 28.439552 -4.4747338 19.333334
171.83966 28.434601 -4.58429 4
182.53716 28.524237 -4.5082974 12
182.7675 28.40703 -4.5535374 15
182.81351 28.56782 -4.5717478 18
169.90143 28.695457 -4.5720239 18.166666
182.43959 28.648945 -4.5423026 7
170.86633 28.917688 -4.5388565 24
183.213 28.915058 -4.4157972 29
169.46812 29.192366 -4.5570993 38
169.87842 29.092907 -4.5078793 14
170.1228 29.100668 -4.5299134 35.666668
170.84152 29.001047 -4.5066295 17
182.46002 29.032623 -4.5714822 7
169.2858 29.201555 -4.5401134 24
182.41837 29.269758 -4.5638785 9
169.2171 29.505524 -4.405479 13
169.96686 29.578844 -4.5560031 14
171.12224 29.541946 -4.5418859 6.3333335
169.68411 29.75568 -4.4956703 14
169.9174 29.762733 -4.5514431 26
170.62396 29.720751 -4.4691801 6
169.54724 29.900133 -4.4766297 11
170.48959 30.137993 -4.4766655 3.5
170.70009 30.058672 -4.4098935 1
182.07742 30.007847 -4.5858169 11
169.98727 30.394449 -4.4055367 7
170.14375 30.318951 -4.5435362 14.8
170.2561 30.30349 -4.4763899 6.3333335
170.72887 30.343994 -4.5177116 1
181.9234 30.27927 -4.5175772 10
169.93538 30.591833 -4.5395002 26
170.10603 30.481665 -4.4888902 13.625
170.20856 30.555954 -4.5325565 17
169.69228 30.622694 -4.4209261 17
170.04788 30.720356 -4.4822083 11.5
170.37512 30.767862 -4.5663209 34
169.90112 30.89698 -4.4887242 20.5
170.05411 30.973459 -4.5764122 42
182.64655 30.903313 -4.5872254 11
169.94855 31.09391 -4.4559708 19.916666
170.02156 31.097507 -4.4978247 33.5
182.51428 31.095734 -4.5765567 7
169.65663 31.20302 -4.4663849 14
169.85463 31.341927 -4.4371319 25
170.058 31.316021 -4.5408792 17.799999
169.74391 31.480688 -4.551465 20
169.87065 31.430325 -4.4478092 16
170.07471 31.517023 -4.4593024 20.166666
170.67657 31.548006 -4.5224605 2
193.92737 31.559402 -4.4345865 13
169.92545 31.722208 -4.4693413 34.599998
170.08995 31.746969 -4.5455227 25
